ply
format ascii 1.0
element vertex 500
property double x
property double y
property double z
property uchar red
property uchar green
property uchar blue
end_header
0.16637200117111206 -0.008568065240979195 0.02406398579478264 255 0 0
0.026079390197992325 -0.06800039112567902 -0.10984665900468826 255 0 0
0.03489641100168228 -0.04523763060569763 0.16317373514175415 255 0 0
-0.27086514234542847 -0.031144065782427788 -0.01989513449370861 255 0 0
-0.17383405566215515 -0.0699731856584549 -0.00929287075996399 255 0 0
0.22626850008964539 -0.12078864127397537 0.0071419416926801205 255 0 0
-0.005717174615710974 -0.07158038020133972 -0.12622079253196716 255 0 0
0.10876282304525375 -0.11076206713914871 0.13544932007789612 255 0 0
0.13005971908569336 -0.11104744672775269 0.11756377667188644 255 0 0
-0.1721423715353012 -0.021830225363373756 -0.03436686843633652 255 0 0
-0.0014869951410219073 -0.002748881932348013 -0.0071123200468719006 255 0 0
-0.16113536059856415 -0.05729648470878601 0.03323689475655556 255 0 0
-0.29987049102783203 -0.008585360832512379 -0.11663272231817245 255 0 0
-0.0013581292005255818 -0.04096794128417969 0.20552989840507507 255 0 0
0.04401792585849762 -0.023941518738865852 0.04014020040631294 255 0 0
-0.2786298394203186 -0.009420991875231266 0.10935413837432861 255 0 0
-0.09900740534067154 -0.003629401559010148 -0.00961820874363184 255 0 0
-0.24022532999515533 -0.014576876536011696 0.022506996989250183 255 0 0
0.2578352093696594 -0.0528595969080925 0.04020524024963379 255 0 0
-0.28384846448898315 0.12127703428268433 -0.002912800293415785 255 0 0
-0.2901056408882141 -0.03882092982530594 -0.000997276627458632 255 0 0
0.07082683593034744 -0.10371225327253342 -0.11605534702539444 255 0 0
-0.15532222390174866 -0.008823039010167122 -0.022446298971772194 255 0 0
-0.2770727276802063 -0.01260027289390564 0.06295648962259293 255 0 0
0.005327331833541393 -0.04828960821032524 -0.15082064270973206 255 0 0
-0.2247130572795868 0.061906274408102036 0.002597101731225848 255 0 0
-0.05372333154082298 -0.057161711156368256 0.25834113359451294 255 0 0
-0.15028803050518036 -0.07513386756181717 -0.00925532914698124 255 0 0
-0.031140699982643127 -0.05426716059446335 0.19161739945411682 255 0 0
-0.260545551776886 -0.025837931782007217 -0.05202086269855499 255 0 0
0.24896240234375 -0.03131639212369919 0.040014758706092834 255 0 0
0.021013155579566956 -0.048358120024204254 0.13391542434692383 255 0 0
-0.06005283072590828 -0.03184598311781883 0.3112424910068512 255 0 0
-0.015969304367899895 -0.05266254022717476 -0.23462435603141785 255 0 0
0.05637553706765175 -0.07384029030799866 -0.064421147108078 255 0 0
-0.021047014743089676 -0.048654090613126755 0.16147087514400482 255 0 0
0.049658481031656265 -0.06352908909320831 -0.13375023007392883 255 0 0
-0.288657009601593 -0.013668566010892391 0.011586491018533707 255 0 0
0.02267192304134369 -0.08977523446083069 0.026927171275019646 255 0 0
0.0680355429649353 -0.0018110827077180147 0.00024333479814231396 255 0 0
0.16488394141197205 -0.019676968455314636 -0.037126779556274414 255 0 0
0.05669673904776573 -0.07900629937648773 -0.04568301886320114 255 0 0
0.018099814653396606 -0.04336375370621681 0.23273107409477234 255 0 0
0.07138986885547638 -0.07707160711288452 0.13609379529953003 255 0 0
0.035339996218681335 -0.024220386520028114 -0.040332186967134476 255 0 0
0.04697556421160698 -0.054266154766082764 0.057899802923202515 255 0 0
-0.04214230552315712 -0.05027581751346588 0.2062346339225769 255 0 0
-0.06556971371173859 -0.02755829133093357 0.041956089437007904 255 0 0
-0.0011614825343713164 -0.051534492522478104 -0.12636366486549377 255 0 0
0.1942836493253708 -0.004198327660560608 -0.013416154310107231 255 0 0
-0.02360132895410061 -0.08393305540084839 0.03913454711437225 255 0 0
0.07707161456346512 -0.09070621430873871 0.004694205708801746 255 0 0
0.20508389174938202 -0.005265326704829931 0.018240969628095627 255 0 0
-0.2874504625797272 0.024200664833188057 0.0033636263106018305 255 0 0
0.11098600178956985 -0.06116565316915512 0.1282934546470642 255 0 0
-0.0032896925695240498 -0.014661727473139763 0.032788027077913284 255 0 0
0.13325372338294983 -0.07609279453754425 -0.10442289710044861 255 0 0
0.18668803572654724 -0.05842701345682144 0.04165339469909668 255 0 0
0.08917549252510071 -0.10938000679016113 -0.11226101964712143 255 0 0
0.14599215984344482 -0.05526958778500557 0.04295746982097626 255 0 0
0.058099791407585144 -0.04837452620267868 -0.11741200089454651 255 0 0
0.21345753967761993 -0.05540113151073456 0.043179553002119064 255 0 0
-0.26082175970077515 -0.014703704044222832 0.017734931781888008 255 0 0
0.11550679802894592 -0.04082745313644409 -0.045493755489587784 255 0 0
-0.02305755205452442 -0.033636562526226044 -0.2963254153728485 255 0 0
-0.28779342770576477 -0.012073504738509655 -0.07152858376502991 255 0 0
0.09401044994592667 -0.06978414952754974 -0.1396188735961914 255 0 0
0.26046860218048096 -0.0821056142449379 -0.01058458536863327 255 0 0
-0.294491708278656 -0.02493896707892418 -0.033941615372896194 255 0 0
-0.014773583970963955 -0.08985082060098648 0.02292659319937229 255 0 0
0.10683856159448624 -0.008886265568435192 0.024354849010705948 255 0 0
0.03913727402687073 -0.09031274169683456 0.01570824719965458 255 0 0
0.09720303118228912 -0.05988039821386337 0.08606910705566406 255 0 0
-0.27477192878723145 -0.014995752833783627 -0.03553690016269684 255 0 0
-0.039613306522369385 -0.05422046408057213 0.1717338263988495 255 0 0
-0.30589890480041504 -0.01484738104045391 -0.08076155185699463 255 0 0
-0.049597155302762985 -0.0391848087310791 -0.25436079502105713 255 0 0
0.046829838305711746 -0.07086494565010071 0.09366337954998016 255 0 0
-0.032978858798742294 -0.06849455833435059 -0.09756629914045334 255 0 0
0.08026981353759766 -0.08179490268230438 0.0432097464799881 255 0 0
-0.030493173748254776 -0.056569501757621765 -0.045716870576143265 255 0 0
0.12719056010246277 -0.06493395566940308 -0.12020467221736908 255 0 0
0.23428194224834442 -0.009583432227373123 -0.021720848977565765 255 0 0
0.2366672307252884 -0.06898355484008789 0.03419717773795128 255 0 0
0.015965528786182404 -0.057005949318408966 -0.1955508440732956 255 0 0
-0.31078216433525085 -0.030760273337364197 -0.006792576052248478 255 0 0
-0.04112108424305916 -0.031870678067207336 0.30418744683265686 255 0 0
-0.08571819216012955 -0.021824216470122337 -0.364391028881073 255 0 0
-0.07187175750732422 -0.039690062403678894 -0.29093044996261597 255 0 0
-0.057258620858192444 -0.05562169849872589 -0.043531134724617004 255 0 0
0.1962146759033203 -0.060466594994068146 -0.041390322148799896 255 0 0
0.022948503494262695 -0.10830305516719818 0.07083021849393845 255 0 0
-0.05654723197221756 -0.06537358462810516 0.04213473200798035 255 0 0
-0.07095881551504135 -0.06839606165885925 -0.03698749840259552 255 0 0
-0.1490572839975357 -0.030043400824069977 -0.03916452080011368 255 0 0
-0.03102344274520874 -0.06514722853899002 0.1228765994310379 255 0 0
-0.12602245807647705 -0.029709069058299065 -0.04091986268758774 255 0 0
-0.07250115275382996 -0.028778310865163803 -0.34330984950065613 255 0 0
-0.25602662563323975 -0.010548138059675694 -0.014182103797793388 255 0 0
0.026262221857905388 -0.003629415761679411 -0.011467719450592995 255 0 0
-0.05210725590586662 -0.04518192261457443 -0.23381642997264862 255 0 0
0.08770270645618439 -0.07113288342952728 0.06087992340326309 255 0 0
0.023960163816809654 -0.049218930304050446 -0.1323995590209961 255 0 0
0.23314693570137024 -0.03430260717868805 -0.04295061528682709 255 0 0
0.01860668882727623 -0.05822765454649925 0.0553986057639122 255 0 0
-0.05665747821331024 -0.03539535030722618 -0.36374443769454956 255 0 0
-0.2472607046365738 0.05358302220702171 0.00766996992751956 255 0 0
-0.02278326265513897 -0.06405165791511536 -0.08199774473905563 255 0 0
0.03979591652750969 -0.07121498882770538 -0.0900498628616333 255 0 0
-0.30189865827560425 0.12088445574045181 0.0029826597310602665 255 0 0
-0.026903185993433 -0.08880838751792908 -0.02555621974170208 255 0 0
0.061955951154232025 -0.07965868711471558 -0.13433274626731873 255 0 0
0.011564835906028748 -0.09069563448429108 -0.008348498493432999 255 0 0
0.12582026422023773 -0.06529022008180618 0.11819867789745331 255 0 0
0.10320974886417389 -0.10297061502933502 -0.10129626095294952 255 0 0
0.1045728400349617 -0.013204798102378845 -0.03122985176742077 255 0 0
0.1819813847541809 -0.027128133922815323 0.042025189846754074 255 0 0
0.022872721776366234 -0.06289941072463989 -0.15106552839279175 255 0 0
-0.025667568668723106 -0.036134351044893265 -0.3156854212284088 255 0 0
0.06666839122772217 -0.102580726146698 0.11711792647838593 255 0 0
-0.20270201563835144 -0.01720423251390457 -0.028612874448299408 255 0 0
0.29307347536087036 -0.04397732391953468 -0.026955734938383102 255 0 0
-0.2171371579170227 0.01317938044667244 0.008291088975965977 255 0 0
0.06987395882606506 -0.054982565343379974 0.13696637749671936 255 0 0
0.15944722294807434 -0.04041058570146561 -0.0454288087785244 255 0 0
0.1956762820482254 -0.08496977388858795 0.0032252022065222263 255 0 0
0.04459773004055023 -0.057481925934553146 0.1727873831987381 255 0 0
0.12702743709087372 -0.04699314385652542 0.045440804213285446 255 0 0
-0.005302377976477146 -0.05683460086584091 -0.19464510679244995 255 0 0
0.10006418824195862 -0.0038963351398706436 -0.010639607906341553 255 0 0
0.07061843574047089 -0.049835462123155594 -0.08663832396268845 255 0 0
-0.30990368127822876 -0.01186365820467472 -0.14537744224071503 255 0 0
-0.04281745105981827 -0.08786366879940033 -0.01349776703864336 255 0 0
0.2598416209220886 -0.01091215293854475 -0.009099375456571579 255 0 0
-0.011931747198104858 -0.07574513554573059 -0.10224130004644394 255 0 0
0.15610694885253906 -0.008769270032644272 -0.02378217689692974 255 0 0
0.01361777912825346 -0.07874295860528946 0.06034737825393677 255 0 0
0.17974354326725006 -0.04839730262756348 -0.04475662484765053 255 0 0
0.06471642851829529 -0.08116864413022995 -0.11000646650791168 255 0 0
0.0030292135197669268 -0.08959542959928513 0.02914448454976082 255 0 0
-0.02076055109500885 -0.07135704159736633 -0.0652129203081131 255 0 0
-0.2822408080101013 -0.02501288428902626 -0.05462703853845596 255 0 0
-0.06145467609167099 -0.03313156217336655 -0.3069283664226532 255 0 0
-0.09027661383152008 -0.03418084233999252 -0.3448825180530548 255 0 0
-0.16806384921073914 -0.021543052047491074 0.03454003855586052 255 0 0
0.12360365688800812 -0.07789475470781326 -0.04214059188961983 255 0 0
0.24177926778793335 -0.08486882597208023 -0.000406507751904428 255 0 0
0.03182285651564598 -0.048959095031023026 0.11336956918239594 255 0 0
0.0150757422670722 -0.08919001370668411 0.09618280082941055 255 0 0
-0.0077995071187615395 -0.09038731455802917 -0.018124688416719437 255 0 0
-0.29919472336769104 -0.020538758486509323 0.029387766495347023 255 0 0
0.023592205718159676 -0.07969081401824951 0.044997263699769974 255 0 0
-0.06357453763484955 -0.08308938145637512 -0.020629923790693283 255 0 0
0.1379641592502594 -0.07358494400978088 0.0394967645406723 255 0 0
0.0012248355196788907 -0.07167551666498184 0.1277030110359192 255 0 0
-0.09591044485569 -0.07175441831350327 0.030322864651679993 255 0 0
-0.012186511419713497 -0.03983723372220993 -0.22200638055801392 255 0 0
-0.26562264561653137 -0.023613717406988144 0.07518237084150314 255 0 0
0.1391688883304596 -0.08542819321155548 0.010818256996572018 255 0 0
0.06491807103157043 -0.0999131053686142 -0.13303835690021515 255 0 0
0.07107265293598175 -0.05012468248605728 -0.04634768143296242 255 0 0
-9.817664977163076e-05 -0.09984862804412842 -0.07568080723285675 255 0 0
0.25527650117874146 -0.07166991382837296 -0.03109092265367508 255 0 0
-0.037878405302762985 -0.052898284047842026 -0.1993124783039093 255 0 0
0.09567754715681076 -0.05421214550733566 -0.08180781453847885 255 0 0
-0.32314640283584595 -0.016944393515586853 -0.006708752363920212 255 0 0
0.019998066127300262 -0.0805220827460289 0.12450013309717178 255 0 0
0.00397900165989995 -0.04531417414546013 -0.17382925748825073 255 0 0
-0.2166723757982254 -0.005435587838292122 -0.013765825890004635 255 0 0
0.08927054703235626 -0.07608804106712341 0.14366048574447632 255 0 0
-0.008739154785871506 -0.03739328309893608 -0.24483369290828705 255 0 0
0.12636399269104004 -0.09001481533050537 0.1489400565624237 255 0 0
-0.16253706812858582 -0.0667765811085701 -0.023500971496105194 255 0 0
0.3042013645172119 -0.0754425972700119 -0.008800546638667583 255 0 0
-0.03325606510043144 -0.05838568136096001 0.04559212177991867 255 0 0
-0.27888786792755127 -0.013691953383386135 -0.12758155167102814 255 0 0
-0.2058667093515396 -0.044623009860515594 -0.030654514208436012 255 0 0
-0.023737769573926926 -0.04850274324417114 -0.16776111721992493 255 0 0
0.1967264711856842 -0.07231906801462173 0.03236378729343414 255 0 0
0.214391827583313 -0.07594668120145798 -0.02864195592701435 255 0 0
-0.08072052896022797 -0.0780288353562355 -0.0246335007250309 255 0 0
-0.2946557402610779 -0.020522767677903175 0.09777490794658661 255 0 0
0.13201338052749634 -0.08795815706253052 -0.007496108766645193 255 0 0
-0.20159897208213806 0.03413137421011925 -0.000979202683083713 255 0 0
0.05382392182946205 -0.050846487283706665 -0.07102946937084198 255 0 0
0.010092956013977528 -0.06107756868004799 -0.04649139568209648 255 0 0
-0.26977962255477905 -3.917104913853109e-05 0.005010921508073807 255 0 0
-0.29338741302490234 0.09315076470375061 -0.004976660944521427 255 0 0
-0.11739881336688995 -0.0805894136428833 -0.00674511818215251 255 0 0
-0.004251011647284031 -0.11465521156787872 0.06954199075698853 255 0 0
0.17141513526439667 -0.046587951481342316 0.045089855790138245 255 0 0
-0.10728316009044647 -0.009554093703627586 0.02485927939414978 255 0 0
0.06329849362373352 -0.08997325599193573 0.02321074903011322 255 0 0
0.021059930324554443 -0.10983213782310486 -0.08088739216327667 255 0 0
0.12060713022947311 -0.0051941233687102795 -0.016190554946660995 255 0 0
-0.05286256968975067 -0.0898229330778122 0.00370912067592144 255 0 0
0.096356101334095 -0.09027326852083206 0.016463641077280045 255 0 0
-0.29088345170021057 -0.007652786560356617 0.127977654337883 255 0 0
0.09654094278812408 -0.07152847200632095 0.10434889793395996 255 0 0
-0.03484341502189636 -0.055730924010276794 0.26165106892585754 255 0 0
0.06421031057834625 -0.07445826381444931 0.0634622722864151 255 0 0
-0.0038025903049856424 -0.05474521219730377 -0.10743506252765656 255 0 0
0.04391329362988472 -0.0034262884873896837 0.010959981009364128 255 0 0
0.2525847256183624 -0.0473969541490078 -0.04165185987949371 255 0 0
0.2601083517074585 -0.06949169188737869 0.031701911240816116 255 0 0
0.03885701298713684 -0.06176100671291351 0.15362392365932465 255 0 0
0.035509273409843445 -0.07481561601161957 0.05911603569984436 255 0 0
0.306599497795105 -0.07308003306388855 0.012266754172742367 255 0 0
0.016283851116895676 -0.05990368500351906 -0.17749084532260895 255 0 0
-0.10899047553539276 -0.04797400161623955 -0.04307638108730316 255 0 0
0.08095672726631165 -0.08803355693817139 -0.14587464928627014 255 0 0
0.10150852799415588 -0.0741250067949295 -0.10128530114889145 255 0 0
-0.04223383218050003 -0.030987050384283066 -0.043335262686014175 255 0 0
0.011369671672582626 -0.04643011838197708 -0.24690768122673035 255 0 0
0.18538744747638702 -0.030647052451968193 -0.043367087841033936 255 0 0
-0.0006420118152163923 -0.05319197475910187 0.23121051490306854 255 0 0
-0.052691325545310974 -0.08306463807821274 0.028419367969036102 255 0 0
0.10215605050325394 -0.053479697555303574 0.04918752610683441 255 0 0
-0.24180537462234497 -0.02275855280458927 -0.061497338116168976 255 0 0
-0.2371225655078888 0.07811054587364197 -0.003053761553019285 255 0 0
0.23424319922924042 -0.07986903190612793 -0.021259766072034836 255 0 0
-0.19566412270069122 -0.06119795888662338 0.017504461109638214 255 0 0
-0.23051592707633972 -0.01831214129924774 0.04446856677532196 255 0 0
-0.046510204672813416 -0.04318072646856308 0.31754326820373535 255 0 0
-0.008135640062391758 -0.05981534346938133 0.07345837354660034 255 0 0
0.0029821835923939943 -0.04329730570316315 0.1844903528690338 255 0 0
-0.26753702759742737 0.06911380589008331 0.006877012085169554 255 0 0
-0.2265462428331375 0.04008755087852478 0.00735998060554266 255 0 0
0.17387349903583527 -0.005237330216914415 -0.015571501106023788 255 0 0
-0.1913718283176422 -0.032157570123672485 -0.03476281464099884 255 0 0
0.049692604690790176 -0.0812206044793129 0.04373661428689957 255 0 0
0.032873332500457764 -0.05301976948976517 -0.08316900581121445 255 0 0
-0.0899367406964302 -0.029885651543736458 0.04243789613246918 255 0 0
0.13641485571861267 -0.002273604040965438 -0.005541455466300249 255 0 0
-0.08233185857534409 -0.029401244595646858 -0.04268879070878029 255 0 0
-0.03431043401360512 -0.04033824801445007 -0.23395729064941406 255 0 0
0.02700040116906166 -0.0574195571243763 -0.06258930265903473 255 0 0
-0.14124815165996552 -0.0067132883705198765 0.01912091299891472 255 0 0
-0.02375643700361252 -0.055214330554008484 -0.14943784475326538 255 0 0
0.010371023789048195 -0.022691993042826653 -0.039206601679325104 255 0 0
0.13106437027454376 -0.0718468725681305 -0.1391415148973465 255 0 0
0.22010454535484314 -0.03196156024932861 0.04303981363773346 255 0 0
0.13330374658107758 -0.10591713339090347 0.13690395653247833 255 0 0
-0.17241798341274261 -0.05405765026807785 -0.033036865293979645 255 0 0
-0.006925719790160656 -0.059353120625019073 -0.1599792242050171 255 0 0
-0.2636319696903229 -0.014379461295902729 -0.10201980173587799 255 0 0
-0.007138835731893778 -0.0319475382566452 -0.04353762045502663 255 0 0
-0.30834531784057617 -0.01431344635784626 0.08661343157291412 255 0 0
0.00910026952624321 -0.12217073142528534 -0.06662764400243759 255 0 0
0.03234444186091423 -0.010398848913609982 0.027160735800862312 255 0 0
-0.13712064921855927 -0.014963612891733646 -0.03147460147738457 255 0 0
0.07578447461128235 -0.06958410888910294 0.07895150780677795 255 0 0
0.17587952315807343 -0.002185542369261384 0.00674431910738349 255 0 0
0.18131473660469055 -0.0784425362944603 0.024193432182073593 255 0 0
0.0202459879219532 -0.0341508649289608 0.0439889058470726 255 0 0
0.16546909511089325 -0.06431803852319717 0.038682971149683 255 0 0
-0.19046154618263245 -0.02466425485908985 0.03294997662305832 255 0 0
0.053079668432474136 -0.039390865713357925 0.04535200446844101 255 0 0
-0.060168489813804626 -0.0090843066573143 -0.02460949495434761 255 0 0
0.0543925017118454 -0.04903419315814972 -0.09551127254962921 255 0 0
0.1542392522096634 -0.08507035672664642 -0.0013560005463659763 255 0 0
-0.07498258352279663 -0.04611709713935852 -0.25767889618873596 255 0 0
-0.03916940093040466 -0.043564483523368835 -0.21604377031326294 255 0 0
-0.1092720478773117 -0.07561182975769043 -0.02357230894267559 255 0 0
-0.0182480588555336 -0.03870411962270737 0.23306456208229065 255 0 0
-0.02434666082262993 -0.006323113106191158 0.019863072782754898 255 0 0
0.0055845039896667 -0.09944786131381989 0.06098311021924019 255 0 0
-0.23262450098991394 0.012119702994823456 -0.008567006327211857 255 0 0
-0.032339196652173996 -0.032858818769454956 0.3255966305732727 255 0 0
0.11861665546894073 -0.08858755230903625 0.022602548822760582 255 0 0
0.21618112921714783 -0.08738671243190765 0.005183828994631767 255 0 0
-0.017119068652391434 -0.0643777847290039 0.05411812290549278 255 0 0
0.11033321917057037 -0.11319082230329514 -0.11828400194644928 255 0 0
0.012003706768155098 -0.054293472319841385 -0.09200269728899002 255 0 0
-0.20254740118980408 -0.04377403110265732 0.031348153948783875 255 0 0
0.28622734546661377 -0.07881557196378708 -0.01073838584125042 255 0 0
0.04874592274427414 -0.07331733405590057 0.0752938836812973 255 0 0
0.23482736945152283 -0.049640558660030365 0.04366583377122879 255 0 0
-0.28074735403060913 -0.027026165276765823 0.02340170368552208 255 0 0
0.10363706946372986 -0.11088496446609497 -0.1354832649230957 255 0 0
0.05366280674934387 -0.08068409562110901 0.13316203653812408 255 0 0
-0.08348369598388672 -0.03507816046476364 0.3664451837539673 255 0 0
-0.07473662495613098 -0.08472581207752228 -0.004832446109503508 255 0 0
0.21690765023231506 -0.07900906354188919 0.02334253117442131 255 0 0
-0.04009795933961868 -0.07733507454395294 -0.04073190316557884 255 0 0
0.32447755336761475 -0.05503006651997566 0.004629720468074083 255 0 0
0.08021663129329681 -0.06683970987796783 -0.08581656217575073 255 0 0
0.12605175375938416 -0.005981783848255873 0.01982109434902668 255 0 0
0.21603162586688995 -0.024361971765756607 -0.04020354151725769 255 0 0
0.10048585385084152 -0.10113593190908432 0.10000267624855042 255 0 0
0.056637536734342575 -0.008483793586492538 0.024394894018769264 255 0 0
-0.27015209197998047 -0.015030321665108204 0.03452817723155022 255 0 0
0.08923028409481049 -0.0901641994714737 -0.022501640021800995 255 0 0
-0.0037261766847223043 -0.09249210357666016 0.09450428187847137 255 0 0
0.088174968957901 -0.054610349237918854 -0.10071192681789398 255 0 0
0.10507111251354218 -0.034733742475509644 0.04439172148704529 255 0 0
0.047848086804151535 -0.08994854986667633 -0.023656554520130157 255 0 0
-0.002540666377171874 -0.07050355523824692 -0.08330497145652771 255 0 0
0.0016305126482620835 -0.05292417109012604 -0.228780597448349 255 0 0
-0.0471407026052475 -0.044345829635858536 0.2245122641324997 255 0 0
0.04255671426653862 -0.047165147960186005 -0.04566080495715141 255 0 0
0.0022236984223127365 -0.061158787459135056 -0.06369128078222275 255 0 0
0.10107216238975525 -0.09112758934497833 -0.14977866411209106 255 0 0
-0.04558689892292023 -0.006708338391035795 0.020994432270526886 255 0 0
0.014579730108380318 -0.05576253682374954 0.0756557434797287 255 0 0
0.04985453560948372 -0.10004556179046631 0.12553289532661438 255 0 0
0.11163102835416794 -0.06600569933652878 -0.05765370652079582 255 0 0
-0.2521800100803375 -0.027809681370854378 0.03537518531084061 255 0 0
0.1086762472987175 -0.11233438551425934 0.11500924080610275 255 0 0
0.02818330191075802 -0.04748240113258362 0.2149445116519928 255 0 0
0.06674470752477646 -0.05134037882089615 0.060569241642951965 255 0 0
0.02458661049604416 -0.04553847759962082 -0.1620655655860901 255 0 0
-0.046720024198293686 -0.029879208654165268 -0.34766918420791626 255 0 0
0.29770931601524353 -0.03771832212805748 0.01745469868183136 255 0 0
-0.2189125418663025 -0.02902556210756302 0.030295757576823235 255 0 0
-0.18169821798801422 -0.05443282052874565 0.030380863696336746 255 0 0
0.05662412941455841 -0.07158413529396057 -0.08262564986944199 255 0 0
-0.04913148656487465 -0.04179556667804718 0.045315567404031754 255 0 0
0.13248388469219208 -0.08367843925952911 -0.026414992287755013 255 0 0
0.03348983824253082 -0.056129638105630875 -0.18644431233406067 255 0 0
0.04629748314619064 -0.0032202494330704212 -0.009609922766685486 255 0 0
0.06565844267606735 -0.06747986376285553 0.09834924340248108 255 0 0
-0.03947741165757179 -0.05459120124578476 -0.2559739351272583 255 0 0
0.10922735929489136 -0.09014090895652771 0.00227923970669508 255 0 0
0.022901948541402817 -0.06917854398488998 0.1052442193031311 255 0 0
-0.055462583899497986 -0.02854161337018013 0.33507221937179565 255 0 0
0.2589486837387085 -0.08237456530332565 0.011937389150261879 255 0 0
0.017841417342424393 -0.09987542778253555 -0.0961889773607254 255 0 0
0.2012985646724701 -0.03296719864010811 0.04379360377788544 255 0 0
0.013047395274043083 -0.07837853580713272 -0.12498141825199127 255 0 0
-0.017711322754621506 -0.06477683782577515 0.1743132472038269 255 0 0
-0.07936309278011322 -0.02884414792060852 0.3470761775970459 255 0 0
0.04365973174571991 -0.050200946629047394 0.08545833081007004 255 0 0
-0.31157439947128296 -0.01621720753610134 0.11878782510757446 255 0 0
-0.1507311910390854 -0.07352888584136963 0.013628106564283371 255 0 0
-0.006418412551283836 -0.046528615057468414 0.04561283439397812 255 0 0
0.021792106330394745 -0.10613285005092621 0.09143456816673279 255 0 0
-0.10349828749895096 -0.002977429423481226 0.008144216611981392 255 0 0
-0.06482900679111481 -0.024203941226005554 -0.0403129979968071 255 0 0
-0.0833434984087944 -0.00783757958561182 0.022431539371609688 255 0 0
0.13585388660430908 -0.01119154877960682 -0.028002869337797165 255 0 0
0.17649109661579132 -0.07211191952228546 -0.033457208424806595 255 0 0
-0.27557575702667236 -0.02270415425300598 -0.0855180099606514 255 0 0
-0.1371638923883438 -0.05925369635224342 0.036582451313734055 255 0 0
-0.2643769085407257 0.03016653098165989 -0.006564653944224119 255 0 0
0.22589431703090668 -0.052270594984292984 -0.0437333770096302 255 0 0
0.06482896953821182 -0.02084995247423649 0.0381089523434639 255 0 0
-0.1173238456249237 -0.06756987422704697 0.032748833298683167 255 0 0
0.3042302131652832 -0.06070976331830025 -0.023565663024783134 255 0 0
0.18538065254688263 -0.00762947415933013 0.022991841658949852 255 0 0
-0.2168559432029724 0.02239939570426941 -0.0076889535412192345 255 0 0
0.021251289173960686 -0.04417281970381737 0.17758601903915405 255 0 0
-0.12934130430221558 -0.07546127587556839 0.018611863255500793 255 0 0
0.008505996316671371 -0.04165839031338692 -0.20326295495033264 255 0 0
-0.026116997003555298 -0.04165692254900932 0.2156836837530136 255 0 0
0.1512947380542755 -0.07830359041690826 -0.024693164974451065 255 0 0
-0.17433463037014008 -0.03875760734081268 0.03743714839220047 255 0 0
-0.009518750011920929 -0.05676000937819481 0.0952155739068985 255 0 0
-0.0364663302898407 -0.027047153562307358 0.04179367423057556 255 0 0
0.04610558599233627 -0.046623922884464264 -0.17030197381973267 255 0 0
0.12476827204227448 -0.09232676774263382 -0.09697422385215759 255 0 0
0.3089863955974579 -0.056996673345565796 0.021518003195524216 255 0 0
-0.020246142521500587 -0.07534327358007431 -0.04685121774673462 255 0 0
0.08308032900094986 -0.05165431648492813 0.09840617328882217 255 0 0
-0.27262648940086365 -0.04319417476654053 -0.0057759759947657585 255 0 0
0.03114374540746212 -0.07474368810653687 -0.12868672609329224 255 0 0
0.10950614511966705 -0.07505243271589279 0.1451335847377777 255 0 0
0.07374414801597595 -0.03615690767765045 0.04471304640173912 255 0 0
0.1779945194721222 -0.08476074039936066 -0.005112857557833195 255 0 0
-0.0010588543955236673 -0.04859074205160141 0.1481703370809555 255 0 0
-0.012013203464448452 -0.050852611660957336 0.2526949644088745 255 0 0
-0.23457017540931702 0.04797954112291336 -0.007549399044364691 255 0 0
-0.0019474374130368233 -0.03783551603555679 0.24278192222118378 255 0 0
0.08275202661752701 -0.00920470617711544 0.02511361986398697 255 0 0
0.14958253502845764 -0.0782867968082428 0.025446157902479172 255 0 0
-0.2862415015697479 -0.022584255784749985 0.08108096569776535 255 0 0
0.2895326018333435 -0.07934702187776566 0.008479805663228035 255 0 0
-0.05987497419118881 -0.03758658841252327 -0.27144256234169006 255 0 0
-0.11867956817150116 -0.0227867029607296 0.03799038007855415 255 0 0
-0.23695756494998932 -0.039918381720781326 -0.024914268404245377 255 0 0
-0.027755066752433777 -0.03713693097233772 -0.25100913643836975 255 0 0
-0.2103136032819748 -0.06158816069364548 0.0036260150372982025 255 0 0
-0.07811431586742401 -0.002191088628023863 0.0012041465379297733 255 0 0
-0.07485437393188477 -0.039842769503593445 0.33301591873168945 255 0 0
0.00048302585491910577 -0.06199846789240837 0.1780969351530075 255 0 0
-0.1509433537721634 -0.049303676933050156 -0.038906704634428024 255 0 0
0.00980613473802805 -0.04136982932686806 -0.04543589428067207 255 0 0
-0.3042950928211212 -0.01068692747503519 -0.0007316801929846406 255 0 0
-0.003477216698229313 -0.0974479466676712 -0.09368335455656052 255 0 0
0.23403477668762207 -0.0674663782119751 -0.036386288702487946 255 0 0
-0.21453803777694702 -0.05426621437072754 0.020088082179427147 255 0 0
0.3022611141204834 -0.03611046448349953 -0.008627479895949364 255 0 0
0.0661964938044548 -0.04993753507733345 -0.13398417830467224 255 0 0
0.08812172710895538 -0.10867060720920563 0.13501164317131042 255 0 0
0.012464378029108047 -0.06273707747459412 0.1417190134525299 255 0 0
-0.028257913887500763 -0.05062565207481384 0.2429865449666977 255 0 0
0.0025234525091946125 -0.044248372316360474 -0.263098806142807 255 0 0
0.28516843914985657 -0.06660497188568115 -0.02793189138174057 255 0 0
0.0843842476606369 -0.10840235650539398 -0.13439680635929108 255 0 0
0.04691652953624725 -0.047257713973522186 -0.14249646663665771 255 0 0
0.21035009622573853 -0.10862977802753448 -0.0028990639839321375 255 0 0
0.27144673466682434 -0.03079593926668167 -0.031279318034648895 255 0 0
0.2513980567455292 -0.028140420094132423 -0.037720367312431335 255 0 0
-0.10870525240898132 -0.07766390591859818 0.018055591732263565 255 0 0
-0.24881091713905334 -0.016028041020035744 0.07569234073162079 255 0 0
-0.013682575896382332 -0.03584548085927963 0.2877417802810669 255 0 0
0.10849661380052567 -0.0896899476647377 -0.01662885583937168 255 0 0
-0.02257797308266163 -0.05881911516189575 0.1389840841293335 255 0 0
-0.03422776237130165 -0.03374416381120682 -0.3324620723724365 255 0 0
-0.29954567551612854 0.06837459653615952 0.0005348505219444633 255 0 0
0.1559228152036667 -0.0314294807612896 0.043483667075634 255 0 0
0.01180153340101242 -0.05753898248076439 0.1948322057723999 255 0 0
-0.13304153084754944 -0.03468947485089302 0.041615262627601624 255 0 0
0.018970778211951256 -0.05155572295188904 0.09862063825130463 255 0 0
0.20686987042427063 -0.016458533704280853 0.034782975912094116 255 0 0
0.08108294755220413 -0.006165516562759876 -0.019454961642622948 255 0 0
0.018251722678542137 -0.08112625777721405 -0.0944390818476677 255 0 0
0.2050010859966278 -0.038905322551727295 -0.04526741802692413 255 0 0
0.053581319749355316 -0.06813638657331467 0.11562338471412659 255 0 0
0.07829658687114716 -0.0662010982632637 -0.1307886391878128 255 0 0
-0.2644493579864502 -0.02560112439095974 0.054970480501651764 255 0 0
-0.142886221408844 -0.002132939174771309 -0.0009389067417941988 255 0 0
-0.12779450416564941 -0.050132498145103455 -0.04138127714395523 255 0 0
0.12288925051689148 -0.09618089348077774 -0.14850208163261414 255 0 0
0.11488872021436691 -0.020198702812194824 0.03758177533745766 255 0 0
-0.08944593369960785 -0.052501920610666275 0.04324764385819435 255 0 0
0.07242337614297867 -0.05087471753358841 -0.066462442278862 255 0 0
-0.020876649767160416 -0.03440301492810249 -0.27195030450820923 255 0 0
-0.286996066570282 -0.01288086548447609 -0.011551542207598686 255 0 0
-0.2571929693222046 0.01204745378345251 -0.006886947900056839 255 0 0
-0.2560672461986542 -0.013594314455986023 -0.08480645716190338 255 0 0
-0.1378399133682251 -0.07165713608264923 -0.02391904592514038 255 0 0
-0.244724839925766 -0.014393014833331108 0.05734577029943466 255 0 0
-0.21701161563396454 -0.012227755039930344 0.022733408957719803 255 0 0
-0.31682583689689636 -0.010533373802900314 0.13689005374908447 255 0 0
-0.015136808156967163 -0.04824558645486832 0.2715633809566498 255 0 0
-0.2853200137615204 -0.020448677241802216 -0.10941074043512344 255 0 0
0.06525172293186188 -0.0982264056801796 0.13527587056159973 255 0 0
-0.2951556146144867 -0.014811658300459385 0.144530788064003 255 0 0
-0.14333339035511017 -0.01849883608520031 0.03359294682741165 255 0 0
0.019476918503642082 -0.06155508756637573 0.15895892679691315 255 0 0
0.04067476838827133 -0.06743871420621872 0.1305239200592041 255 0 0
-0.020065320655703545 -0.0683642327785492 0.08454541862010956 255 0 0
0.20737572014331818 -0.08337821066379547 -0.012289846315979958 255 0 0
0.016342487186193466 -0.05016384646296501 -0.11515996605157852 255 0 0
-0.2644331753253937 0.09234325587749481 0.006678943522274494 255 0 0
-0.0456472709774971 -0.00219966983422637 0.0011091693304479122 255 0 0
0.13347187638282776 -0.07553227245807648 0.10502170026302338 255 0 0
-0.12515541911125183 -0.0029213223606348038 0.006866486743092537 255 0 0
-0.0002648930822033435 -0.07227134704589844 0.08498767763376236 255 0 0
-0.037656091153621674 -0.010484705679118633 -0.026161136105656624 255 0 0
0.1293104887008667 -0.08755083382129669 0.1271171271800995 255 0 0
0.07780099660158157 -0.0513598658144474 -0.11588859558105469 255 0 0
0.0024110530503094196 -0.08830549567937851 0.07552774250507355 255 0 0
-0.17617055773735046 -0.0005244845524430275 0.006094339303672314 255 0 0
-0.09852419793605804 -0.06364522874355316 -0.03772056847810745 255 0 0
-0.07727569341659546 -0.040579527616500854 0.31477421522140503 255 0 0
0.09923374652862549 -0.09793847799301147 0.1477596014738083 255 0 0
-0.07658380270004272 -0.037848565727472305 -0.36237582564353943 255 0 0
-0.03305674344301224 -0.0628504604101181 0.09951186180114746 255 0 0
0.08720602840185165 -0.07203060388565063 -0.05318192392587662 255 0 0
-0.08398932963609695 -0.04778704792261124 -0.044798702001571655 255 0 0
-0.2866649627685547 -0.024895930662751198 0.04282984137535095 255 0 0
-0.2424045205116272 0.01951289363205433 0.00813353806734085 255 0 0
-0.2699055075645447 -0.012423075735569 -0.06147241219878197 255 0 0
0.07432031631469727 -0.08602938055992126 -0.03898405283689499 255 0 0
0.16482581198215485 -0.06040959805250168 -0.04141725227236748 255 0 0
-0.23553156852722168 -0.011261899024248123 -0.01897832751274109 255 0 0
-0.0010821012547239661 -0.05262617766857147 0.11367803812026978 255 0 0
0.013547532260417938 -0.009326687082648277 0.024682383984327316 255 0 0
0.2662043273448944 -0.0222054123878479 0.027866177260875702 255 0 0
-0.12057549506425858 -0.051073573529720306 0.041636545211076736 255 0 0
-0.16337551176548004 -0.006423968821763992 0.018784862011671066 255 0 0
-0.07927201688289642 -0.07880087196826935 0.023492921143770218 255 0 0
-0.31542477011680603 -0.014065582305192947 -0.1249699592590332 255 0 0
0.0038556805811822414 -0.09057144820690155 0.009484728798270226 255 0 0
-0.05800643563270569 -0.036749862134456635 0.2736915946006775 255 0 0
0.06442967057228088 -0.09061086177825928 -0.010859999805688858 255 0 0
0.12111625075340271 -0.024111811071634293 -0.04037576913833618 255 0 0
-0.010839354246854782 -0.05449329689145088 -0.045986607670784 255 0 0
0.09754063189029694 -0.0028123692609369755 0.008978280238807201 255 0 0
0.06570243835449219 -0.06712596118450165 -0.09789261966943741 255 0 0
-0.31149768829345703 -0.013628058135509491 -0.10145989805459976 255 0 0
-0.2877121567726135 -0.010208343155682087 -0.09434060752391815 255 0 0
0.2404457926750183 -0.004811374470591545 -0.002857276936993003 255 0 0
-0.28671878576278687 0.004179321229457855 -0.0008828631252981722 255 0 0
0.14146044850349426 -0.0358453169465065 -0.04458967596292496 255 0 0
0.08071684837341309 -0.032947320491075516 -0.04390174522995949 255 0 0
-0.1720312088727951 -0.06879611313343048 0.01426474004983902 255 0 0
-0.004606511443853378 -0.07676443457603455 0.047652848064899445 255 0 0
-0.04561912640929222 -0.04516546428203583 -0.29455500841140747 255 0 0
0.022106457501649857 -0.044481828808784485 -0.2241082340478897 255 0 0
-0.026824619621038437 -0.0022596921771764755 -0.0016667754389345646 255 0 0
0.1290404349565506 -0.06997225433588028 0.13853897154331207 255 0 0
0.09134829044342041 -0.051923446357250214 0.06755928695201874 255 0 0
0.22390469908714294 -0.007950915023684502 0.021797385066747665 255 0 0
-0.025842633098363876 -0.03609955310821533 0.2583354711532593 255 0 0
-0.19814375042915344 -0.002747529186308384 -0.009961123578250408 255 0 0
-0.015458574518561363 -0.009452014230191708 -0.025103824213147163 255 0 0
0.06265783309936523 -0.08470422029495239 0.10897377133369446 255 0 0
